665187.522077 5648349.895035 241.767693 117 73 49
665187.404645 5648349.776039 244.857091 91 87 74
665180.366089 5648347.104624 241.992427 74 59 56
665187.223877 5648349.770938 243.590993 103 56 38
665187.351238 5648349.677898 243.483564 87 45 18
665187.696800 5648350.009756 243.397889 96 49 23
665187.752998 5648350.015948 243.423599 82 36 12
665187.853126 5648350.062868 242.666319 100 56 36
665187.187965 5648349.648020 241.524185 102 67 45
665177.242431 5648355.463935 242.205954 129 143 153
665186.545855 5648350.069509 244.952923 116 118 124
665187.688931 5648350.015914 244.736803 87 71 56
665179.172152 5648346.119581 243.004530 152 152 150
665186.586066 5648349.278354 243.810056 103 51 33
665187.049868 5648349.588582 242.199069 105 56 32
665186.448322 5648349.169220 241.783978 130 76 51
665187.317165 5648349.646515 240.431664 113 71 50
665186.907412 5648349.485374 244.416794 108 52 35
665187.022307 5648349.590217 243.630354 103 52 33
665186.961005 5648349.516735 243.142461 115 70 48
665187.639203 5648349.935519 242.650497 106 62 38
665183.732395 5648349.393276 242.673859 98 85 79
665187.848961 5648350.118038 243.900865 111 60 46
665186.841969 5648349.436009 243.738862 102 50 31
665175.354410 5648343.592376 241.681222 94 95 96
665184.240633 5648349.582474 241.603159 99 100 102
665184.555791 5648349.901679 241.525253 68 73 76
665187.528689 5648349.943474 242.412171 103 57 32
665186.791544 5648349.473153 241.716777 111 63 40
665187.266678 5648349.719669 243.740533 96 51 35
665187.495842 5648349.891744 243.474667 121 71 42
665187.628125 5648349.975656 243.475322 128 73 43
665176.958551 5648344.622779 241.437104 74 83 87
665187.610863 5648349.952235 243.225810 116 65 36
665187.652896 5648349.976264 243.229210 121 71 44
665186.751529 5648349.385322 243.049302 115 66 39
665186.810620 5648349.405333 242.797234 119 70 44
665186.920824 5648349.501383 242.784504 116 65 42
665186.840294 5648349.456587 241.937845 121 73 51
665186.513818 5648349.158295 241.589456 120 68 45
665186.780888 5648349.381847 239.501297 94 49 27
665186.817227 5648349.406503 239.501089 100 57 35
665177.310008 5648355.721113 242.005898 129 138 150
665185.470982 5648351.318752 244.820023 70 70 64
665186.536003 5648349.203460 243.332761 108 53 34
665186.817478 5648349.390266 242.152887 124 73 48
665174.537520 5648354.920260 241.392743 11 21 32
665186.457585 5648351.284234 244.913467 49 51 53
665187.870931 5648350.126108 244.886029 77 79 65
665186.376970 5648351.046593 244.761626 85 87 85
665179.508792 5648346.491154 242.654987 95 78 69
665175.355010 5648343.662223 241.700074 83 82 78
665176.220855 5648344.112721 241.580934 104 110 113
665187.668407 5648346.487659 241.223852 55 61 63
665180.543610 5648356.542730 241.536795 19 30 35
665184.448342 5648349.779533 241.710843 45 48 50
665187.103916 5648349.596690 242.387960 93 59 34
665179.914439 5648340.872640 241.070896 64 74 84
665180.396542 5648381.731112 234.215049 60 64 63
665175.843614 5648356.474853 241.446600 25 41 57
665187.751942 5648350.140536 245.104472 65 66 63
665186.781211 5648349.497635 244.086764 107 51 33
665186.592609 5648349.282821 243.645810 124 61 37
665183.792953 5648349.424680 241.649468 24 21 23
665184.155975 5648349.721881 241.607575 41 41 46
665186.866032 5648349.460001 243.399564 118 58 28
665186.588400 5648349.289210 243.120186 113 54 32
665187.017677 5648349.555045 243.140444 147 88 51
665186.775126 5648349.391526 242.875691 98 63 38
665181.187027 5648375.214437 240.590979 55 42 33
665171.374980 5648358.977560 242.372442 30 45 57
665180.293310 5648381.899135 233.514072 57 62 64
665186.428691 5648352.312189 245.903290 61 59 59
665181.385539 5648355.062082 241.652591 26 35 43
665186.559532 5648350.876166 244.805059 45 43 42
665187.670142 5648350.114873 244.402763 105 47 30
665175.475494 5648343.574686 241.699329 89 90 93
665177.652267 5648345.324156 241.517672 79 82 87
665179.637786 5648340.499471 240.999473 88 88 84
665179.389653 5648346.258358 242.878171 163 163 162
665175.242558 5648343.565048 241.632853 51 51 52
665184.115611 5648349.550656 241.561558 40 40 43
665185.997341 5648349.088685 241.279241 26 33 44
665179.485319 5648358.065928 241.743423 54 65 75
665187.372177 5648349.796269 244.584248 134 72 50
665186.877699 5648349.462079 241.699093 97 55 32
665187.134409 5648349.589667 241.479519 72 49 17
665171.472209 5648359.065470 242.637024 14 26 40
665177.355385 5648344.841807 243.268084 100 107 111
665177.898294 5648345.319620 242.344805 73 34 21
665177.389572 5648355.426730 242.113508 169 178 189
665176.244590 5648344.244440 241.872059 26 29 31
665175.144651 5648343.480318 241.555333 99 103 105
665179.507231 5648340.872581 241.063014 52 60 74
665187.747503 5648346.515111 241.230944 59 66 63
665186.958001 5648351.186818 244.413234 56 55 53
665184.014761 5648349.462696 241.566187 41 42 45
665181.053913 5648355.863091 241.518915 33 31 20
665185.730688 5648351.810010 244.865366 69 66 59
665186.236769 5648351.141146 244.871176 57 59 64
